-686.797772 275.080102 -396.000000
-688.339695 273.806339 -396.000000
-689.881619 272.532576 -396.000000
-691.423542 271.258813 -396.000000
-692.965466 269.985050 -396.000000
-694.507389 268.711287 -396.000000
-696.049313 267.437524 -396.000000
-697.591236 266.163761 -396.000000
-699.133160 264.889999 -396.000000
-700.675083 263.616236 -396.000000
-702.217007 262.342473 -396.000000
-703.758930 261.068710 -396.000000
-705.300854 259.794947 -396.000000
-706.842777 258.521184 -396.000000
-708.384701 257.247421 -396.000000
-709.926624 255.973658 -396.000000
-711.468548 254.699895 -396.000000
-713.010471 253.426133 -396.000000
-714.552395 252.152370 -396.000000
-716.094318 250.878607 -396.000000
-717.636242 249.604844 -396.000000
-719.178165 248.331081 -396.000000
-720.720089 247.057318 -396.000000
-722.262012 245.783555 -396.000000
-723.803936 244.509792 -396.000000
-725.345859 243.236029 -396.000000
-726.887783 241.962266 -396.000000
-728.429706 240.688504 -396.000000
-729.971630 239.414741 -396.000000
-731.513553 238.140978 -396.000000
-733.055477 236.867215 -396.000000
-734.597400 235.593452 -396.000000
-736.139324 234.319689 -396.000000
-737.681247 233.045926 -396.000000
-739.223171 231.772163 -396.000000
-740.765094 230.498400 -396.000000
-742.307018 229.224638 -396.000000
-743.848941 227.950875 -396.000000
-745.390865 226.677112 -396.000000
-746.932788 225.403349 -396.000000
-748.474712 224.129586 -396.000000
-750.016635 222.855823 -396.000000
-751.558559 221.582060 -396.000000
-753.100482 220.308297 -396.000000
-754.642406 219.034534 -396.000000
-756.184329 217.760771 -396.000000
-757.726253 216.487009 -396.000000
-759.268176 215.213246 -396.000000
-760.810100 213.939483 -396.000000
-762.352023 212.665720 -396.000000
-763.893947 211.391957 -396.000000
-765.435870 210.118194 -396.000000
-400.000000 528.000000 -332.000000
-400.000000 528.000000 -332.000000
-400.000000 527.514929 -333.940285
-400.000000 527.029857 -335.880570
-400.000000 526.544786 -337.820855
-400.000000 526.059715 -339.761140
-400.000000 525.574644 -341.701425
-400.000000 525.089572 -343.641710
-400.000000 524.604501 -345.581995
-400.000000 524.119430 -347.522280
-400.000000 523.634359 -349.462565
-400.000000 523.149287 -351.402850
-400.000000 522.664216 -353.343135
-400.000000 522.179145 -355.283420
-400.000000 521.694074 -357.223705
-400.000000 521.209002 -359.163990
-400.000000 520.723931 -361.104275
-400.000000 520.238860 -363.044560
-400.000000 519.753789 -364.984845
-400.000000 519.268717 -366.925130
-400.000000 518.783646 -368.865415
-400.000000 518.298575 -370.805700
-400.000000 517.813504 -372.745985
-400.000000 517.328432 -374.686270
-400.000000 516.843361 -376.626555
-400.000000 516.358290 -378.566840
-400.000000 515.873219 -380.507125
-400.000000 515.388147 -382.447410
-400.000000 514.903076 -384.387695
-400.000000 514.418005 -386.327980
-400.000000 513.932934 -388.268265
-400.000000 513.447862 -390.208550
-400.000000 512.962791 -392.148835
-408.000000 528.000000 44.000000
-408.000000 528.000000 44.000000
-407.957456 528.000000 42.000453
-407.914913 528.000000 40.000905
-407.872369 528.000000 38.001358
-407.829826 528.000000 36.001810
-407.787282 528.000000 34.002263
-407.744739 528.000000 32.002715
-407.702195 528.000000 30.003168
-407.659651 528.000000 28.003620
-407.617108 528.000000 26.004073
-407.574564 528.000000 24.004525
-407.532021 528.000000 22.004978
-407.489477 528.000000 20.005430
-407.446934 528.000000 18.005883
-407.404390 528.000000 16.006336
-407.361847 528.000000 14.006788
-407.319303 528.000000 12.007241
-407.276759 528.000000 10.007693
-407.234216 528.000000 8.008146
-407.191672 528.000000 6.008598
-407.149129 528.000000 4.009051
-407.106585 528.000000 2.009503
-407.064042 528.000000 0.009956
-407.021498 528.000000 -1.989592
-406.978954 528.000000 -3.989139
-406.936411 528.000000 -5.988687
-406.893867 528.000000 -7.988234
-406.851324 528.000000 -9.987781
-406.808780 528.000000 -11.987329
-406.766237 528.000000 -13.986876
-406.723693 528.000000 -15.986424
-406.681150 528.000000 -17.985971
-406.638606 528.000000 -19.985519
-406.596062 528.000000 -21.985066
-406.553519 528.000000 -23.984614
-406.510975 528.000000 -25.984161
-406.468432 528.000000 -27.983709
-406.425888 528.000000 -29.983256
-406.383345 528.000000 -31.982803
-406.340801 528.000000 -33.982351
-406.298257 528.000000 -35.981898
-406.255714 528.000000 -37.981446
-406.213170 528.000000 -39.980993
-406.170627 528.000000 -41.980541
-406.128083 528.000000 -43.980088
-406.085540 528.000000 -45.979636
-406.042996 528.000000 -47.979183
-406.000453 528.000000 -49.978731
-405.957909 528.000000 -51.978278
-405.915365 528.000000 -53.977826
-405.872822 528.000000 -55.977373
-405.830278 528.000000 -57.976920
-405.787735 528.000000 -59.976468
-405.745191 528.000000 -61.976015
-405.702648 528.000000 -63.975563
-405.660104 528.000000 -65.975110
-405.617560 528.000000 -67.974658
-405.575017 528.000000 -69.974205
-405.532473 528.000000 -71.973753
-405.489930 528.000000 -73.973300
-405.447386 528.000000 -75.972848
-405.404843 528.000000 -77.972395
-405.362299 528.000000 -79.971943
-405.319756 528.000000 -81.971490
-405.277212 528.000000 -83.971037
-405.234668 528.000000 -85.970585
-405.192125 528.000000 -87.970132
-405.149581 528.000000 -89.969680
-405.107038 528.000000 -91.969227
-405.064494 528.000000 -93.968775
-405.021951 528.000000 -95.968322
-404.979407 528.000000 -97.967870
-404.936863 528.000000 -99.967417
-404.894320 528.000000 -101.966965
-404.851776 528.000000 -103.966512
-404.809233 528.000000 -105.966060
-404.766689 528.000000 -107.965607
-404.724146 528.000000 -109.965154
-404.681602 528.000000 -111.964702
-404.639059 528.000000 -113.964249
-404.596515 528.000000 -115.963797
-404.553971 528.000000 -117.963344
-404.511428 528.000000 -119.962892
-404.468884 528.000000 -121.962439
-404.426341 528.000000 -123.961987
-404.383797 528.000000 -125.961534
-404.341254 528.000000 -127.961082
-404.298710 528.000000 -129.960629
-404.256166 528.000000 -131.960176
-404.213623 528.000000 -133.959724
-404.171079 528.000000 -135.959271
-404.128536 528.000000 -137.958819
-404.085992 528.000000 -139.958366
-404.043449 528.000000 -141.957914
-404.000905 528.000000 -143.957461
-403.958362 528.000000 -145.957009
-403.915818 528.000000 -147.956556
-403.873274 528.000000 -149.956104
-403.830731 528.000000 -151.955651
-403.788187 528.000000 -153.955199
-403.745644 528.000000 -155.954746
-403.703100 528.000000 -157.954293
-403.660557 528.000000 -159.953841
-403.618013 528.000000 -161.953388
-403.575469 528.000000 -163.952936
-403.532926 528.000000 -165.952483
-403.490382 528.000000 -167.952031
-403.447839 528.000000 -169.951578
-403.405295 528.000000 -171.951126
-403.362752 528.000000 -173.950673
-403.320208 528.000000 -175.950221
-403.277665 528.000000 -177.949768
-403.235121 528.000000 -179.949316
-403.192577 528.000000 -181.948863
-403.150034 528.000000 -183.948410
-403.107490 528.000000 -185.947958
-403.064947 528.000000 -187.947505
-403.022403 528.000000 -189.947053
-402.979860 528.000000 -191.946600
-402.937316 528.000000 -193.946148
-402.894772 528.000000 -195.945695
-402.852229 528.000000 -197.945243
-402.809685 528.000000 -199.944790
-402.767142 528.000000 -201.944338
-402.724598 528.000000 -203.943885
-402.682055 528.000000 -205.943433
-402.639511 528.000000 -207.942980
-402.596968 528.000000 -209.942527
-402.554424 528.000000 -211.942075
-402.511880 528.000000 -213.941622
-402.469337 528.000000 -215.941170
-402.426793 528.000000 -217.940717
-402.384250 528.000000 -219.940265
-402.341706 528.000000 -221.939812
-402.299163 528.000000 -223.939360
-402.256619 528.000000 -225.938907
-402.214075 528.000000 -227.938455
-402.171532 528.000000 -229.938002
-402.128988 528.000000 -231.937549
-402.086445 528.000000 -233.937097
-402.043901 528.000000 -235.936644
-402.001358 528.000000 -237.936192
-401.958814 528.000000 -239.935739
-401.916270 528.000000 -241.935287
-401.873727 528.000000 -243.934834
-401.831183 528.000000 -245.934382
-401.788640 528.000000 -247.933929
-401.746096 528.000000 -249.933477
-401.703553 528.000000 -251.933024
-401.661009 528.000000 -253.932572
-401.618466 528.000000 -255.932119
-401.575922 528.000000 -257.931666
-401.533378 528.000000 -259.931214
-401.490835 528.000000 -261.930761
-401.448291 528.000000 -263.930309
-401.405748 528.000000 -265.929856
-401.363204 528.000000 -267.929404
-401.320661 528.000000 -269.928951
-401.278117 528.000000 -271.928499
-401.235573 528.000000 -273.928046
-401.193030 528.000000 -275.927594
-401.150486 528.000000 -277.927141
-401.107943 528.000000 -279.926689
-401.065399 528.000000 -281.926236
-401.022856 528.000000 -283.925783
-400.980312 528.000000 -285.925331
-400.937769 528.000000 -287.924878
-400.895225 528.000000 -289.924426
-400.852681 528.000000 -291.923973
-400.810138 528.000000 -293.923521
-400.767594 528.000000 -295.923068
-400.725051 528.000000 -297.922616
-400.682507 528.000000 -299.922163
-400.639964 528.000000 -301.921711
-400.597420 528.000000 -303.921258
-400.554876 528.000000 -305.920806
-400.512333 528.000000 -307.920353
-400.469789 528.000000 -309.919900
-400.427246 528.000000 -311.919448
-400.384702 528.000000 -313.918995
-400.342159 528.000000 -315.918543
-400.299615 528.000000 -317.918090
-400.257072 528.000000 -319.917638
-400.214528 528.000000 -321.917185
-400.171984 528.000000 -323.916733
-400.129441 528.000000 -325.916280
-400.086897 528.000000 -327.915828
-400.044354 528.000000 -329.915375
-32.000000 216.000000 44.000000
-32.000000 216.000000 44.000000
-33.539123 217.277145 44.000000
-35.078247 218.554290 44.000000
-36.617370 219.831435 44.000000
-38.156494 221.108580 44.000000
-39.695617 222.385725 44.000000
-41.234740 223.662870 44.000000
-42.773864 224.940015 44.000000
-44.312987 226.217160 44.000000
-45.852110 227.494304 44.000000
-47.391234 228.771449 44.000000
-48.930357 230.048594 44.000000
-50.469481 231.325739 44.000000
-52.008604 232.602884 44.000000
-53.547727 233.880029 44.000000
-55.086851 235.157174 44.000000
-56.625974 236.434319 44.000000
-58.165098 237.711464 44.000000
-59.704221 238.988609 44.000000
-61.243344 240.265754 44.000000
-62.782468 241.542899 44.000000
-64.321591 242.820044 44.000000
-65.860715 244.097189 44.000000
-67.399838 245.374334 44.000000
-68.938961 246.651479 44.000000
-70.478085 247.928623 44.000000
-72.017208 249.205768 44.000000
-73.556331 250.482913 44.000000
-75.095455 251.760058 44.000000
-76.634578 253.037203 44.000000
-78.173702 254.314348 44.000000
-79.712825 255.591493 44.000000
-81.251948 256.868638 44.000000
-82.791072 258.145783 44.000000
-84.330195 259.422928 44.000000
-85.869319 260.700073 44.000000
-87.408442 261.977218 44.000000
-88.947565 263.254363 44.000000
-90.486689 264.531508 44.000000
-92.025812 265.808653 44.000000
-93.564936 267.085798 44.000000
-95.104059 268.362943 44.000000
-96.643182 269.640087 44.000000
-98.182306 270.917232 44.000000
-99.721429 272.194377 44.000000
-101.260552 273.471522 44.000000
-102.799676 274.748667 44.000000
-104.338799 276.025812 44.000000
-105.877923 277.302957 44.000000
-107.417046 278.580102 44.000000
-108.956169 279.857247 44.000000
-110.495293 281.134392 44.000000
-112.034416 282.411537 44.000000
-113.573540 283.688682 44.000000
-115.112663 284.965827 44.000000
-116.651786 286.242972 44.000000
-118.190910 287.520117 44.000000
-119.730033 288.797262 44.000000
-121.269157 290.074406 44.000000
-122.808280 291.351551 44.000000
-124.347403 292.628696 44.000000
-125.886527 293.905841 44.000000
-127.425650 295.182986 44.000000
-128.964773 296.460131 44.000000
-130.503897 297.737276 44.000000
-132.043020 299.014421 44.000000
-133.582144 300.291566 44.000000
-135.121267 301.568711 44.000000
-136.660390 302.845856 44.000000
-138.199514 304.123001 44.000000
-139.738637 305.400146 44.000000
-141.277761 306.677291 44.000000
-142.816884 307.954436 44.000000
-144.356007 309.231581 44.000000
-145.895131 310.508726 44.000000
-147.434254 311.785870 44.000000
-148.973378 313.063015 44.000000
-150.512501 314.340160 44.000000
-152.051624 315.617305 44.000000
-153.590748 316.894450 44.000000
-155.129871 318.171595 44.000000
-156.668994 319.448740 44.000000
-158.208118 320.725885 44.000000
-159.747241 322.003030 44.000000
-161.286365 323.280175 44.000000
-162.825488 324.557320 44.000000
-164.364611 325.834465 44.000000
-165.903735 327.111610 44.000000
-167.442858 328.388755 44.000000
-168.981982 329.665900 44.000000
-170.521105 330.943045 44.000000
-172.060228 332.220189 44.000000
-173.599352 333.497334 44.000000
-175.138475 334.774479 44.000000
-176.677598 336.051624 44.000000
-178.216722 337.328769 44.000000
-179.755845 338.605914 44.000000
-181.294969 339.883059 44.000000
-182.834092 341.160204 44.000000
-184.373215 342.437349 44.000000
-185.912339 343.714494 44.000000
-187.451462 344.991639 44.000000
-188.990586 346.268784 44.000000
-190.529709 347.545929 44.000000
-192.068832 348.823074 44.000000
-193.607956 350.100219 44.000000
-195.147079 351.377364 44.000000
-196.686203 352.654508 44.000000
-198.225326 353.931653 44.000000
-199.764449 355.208798 44.000000
-201.303573 356.485943 44.000000
-202.842696 357.763088 44.000000
-204.381819 359.040233 44.000000
-205.920943 360.317378 44.000000
-207.460066 361.594523 44.000000
-208.999190 362.871668 44.000000
-210.538313 364.148813 44.000000
-212.077436 365.425958 44.000000
-213.616560 366.703103 44.000000
-215.155683 367.980248 44.000000
-216.694807 369.257393 44.000000
-218.233930 370.534538 44.000000
-219.773053 371.811683 44.000000
-221.312177 373.088828 44.000000
-222.851300 374.365972 44.000000
-224.390424 375.643117 44.000000
-225.929547 376.920262 44.000000
-227.468670 378.197407 44.000000
-229.007794 379.474552 44.000000
-230.546917 380.751697 44.000000
-232.086040 382.028842 44.000000
-233.625164 383.305987 44.000000
-235.164287 384.583132 44.000000
-236.703411 385.860277 44.000000
-238.242534 387.137422 44.000000
-239.781657 388.414567 44.000000
-241.320781 389.691712 44.000000
-242.859904 390.968857 44.000000
-244.399028 392.246002 44.000000
-245.938151 393.523147 44.000000
-247.477274 394.800291 44.000000
-249.016398 396.077436 44.000000
-250.555521 397.354581 44.000000
-252.094645 398.631726 44.000000
-253.633768 399.908871 44.000000
-255.172891 401.186016 44.000000
-256.712015 402.463161 44.000000
-258.251138 403.740306 44.000000
-259.790261 405.017451 44.000000
-261.329385 406.294596 44.000000
-262.868508 407.571741 44.000000
-264.407632 408.848886 44.000000
-265.946755 410.126031 44.000000
-267.485878 411.403176 44.000000
-269.025002 412.680321 44.000000
-270.564125 413.957466 44.000000
-272.103249 415.234611 44.000000
-273.642372 416.511755 44.000000
-275.181495 417.788900 44.000000
-276.720619 419.066045 44.000000
-278.259742 420.343190 44.000000
-279.798866 421.620335 44.000000
-281.337989 422.897480 44.000000
-282.877112 424.174625 44.000000
-284.416236 425.451770 44.000000
-285.955359 426.728915 44.000000
-287.494482 428.006060 44.000000
-289.033606 429.283205 44.000000
-290.572729 430.560350 44.000000
-292.111853 431.837495 44.000000
-293.650976 433.114640 44.000000
-295.190099 434.391785 44.000000
-296.729223 435.668930 44.000000
-298.268346 436.946074 44.000000
-299.807470 438.223219 44.000000
-301.346593 439.500364 44.000000
-302.885716 440.777509 44.000000
-304.424840 442.054654 44.000000
-305.963963 443.331799 44.000000
-307.503086 444.608944 44.000000
-309.042210 445.886089 44.000000
-310.581333 447.163234 44.000000
-312.120457 448.440379 44.000000
-313.659580 449.717524 44.000000
-315.198703 450.994669 44.000000
-316.737827 452.271814 44.000000
-318.276950 453.548959 44.000000
-319.816074 454.826104 44.000000
-321.355197 456.103249 44.000000
-322.894320 457.380394 44.000000
-324.433444 458.657538 44.000000
-325.972567 459.934683 44.000000
-327.511691 461.211828 44.000000
-329.050814 462.488973 44.000000
-330.589937 463.766118 44.000000
-332.129061 465.043263 44.000000
-333.668184 466.320408 44.000000
-335.207307 467.597553 44.000000
-336.746431 468.874698 44.000000
-338.285554 470.151843 44.000000
-339.824678 471.428988 44.000000
-341.363801 472.706133 44.000000
-342.902924 473.983278 44.000000
-344.442048 475.260423 44.000000
-345.981171 476.537568 44.000000
-347.520295 477.814713 44.000000
-349.059418 479.091857 44.000000
-350.598541 480.369002 44.000000
-352.137665 481.646147 44.000000
-353.676788 482.923292 44.000000
-355.215912 484.200437 44.000000
-356.755035 485.477582 44.000000
-358.294158 486.754727 44.000000
-359.833282 488.031872 44.000000
-361.372405 489.309017 44.000000
-362.911528 490.586162 44.000000
-364.450652 491.863307 44.000000
-365.989775 493.140452 44.000000
-367.528899 494.417597 44.000000
-369.068022 495.694742 44.000000
-370.607145 496.971887 44.000000
-372.146269 498.249032 44.000000
-373.685392 499.526177 44.000000
-375.224516 500.803321 44.000000
-376.763639 502.080466 44.000000
-378.302762 503.357611 44.000000
-379.841886 504.634756 44.000000
-381.381009 505.911901 44.000000
-382.920133 507.189046 44.000000
-384.459256 508.466191 44.000000
-385.998379 509.743336 44.000000
-387.537503 511.020481 44.000000
-389.076626 512.297626 44.000000
-390.615749 513.574771 44.000000
-392.154873 514.851916 44.000000
-393.693996 516.129061 44.000000
-395.233120 517.406206 44.000000
-396.772243 518.683351 44.000000
-398.311366 519.960496 44.000000
-399.850490 521.237640 44.000000
-401.389613 522.514785 44.000000
-402.928737 523.791930 44.000000
-404.467860 525.069075 44.000000
-406.006983 526.346220 44.000000
304.000000 -96.000000 44.000000
304.000000 -96.000000 44.000000
302.534413 -94.639098 44.000000
301.068826 -93.278196 44.000000
299.603239 -91.917293 44.000000
298.137652 -90.556391 44.000000
296.672065 -89.195489 44.000000
295.206478 -87.834587 44.000000
293.740891 -86.473685 44.000000
292.275304 -85.112782 44.000000
290.809717 -83.751880 44.000000
289.344130 -82.390978 44.000000
287.878543 -81.030076 44.000000
286.412956 -79.669174 44.000000
284.947369 -78.308271 44.000000
283.481782 -76.947369 44.000000
282.016195 -75.586467 44.000000
280.550608 -74.225565 44.000000
279.085021 -72.864663 44.000000
277.619434 -71.503760 44.000000
276.153847 -70.142858 44.000000
274.688260 -68.781956 44.000000
273.222673 -67.421054 44.000000
271.757086 -66.060152 44.000000
270.291499 -64.699249 44.000000
268.825912 -63.338347 44.000000
267.360325 -61.977445 44.000000
265.894738 -60.616543 44.000000
264.429151 -59.255641 44.000000
262.963564 -57.894738 44.000000
261.497977 -56.533836 44.000000
260.032391 -55.172934 44.000000
258.566804 -53.812032 44.000000
257.101217 -52.451130 44.000000
255.635630 -51.090227 44.000000
254.170043 -49.729325 44.000000
252.704456 -48.368423 44.000000
251.238869 -47.007521 44.000000
249.773282 -45.646619 44.000000
248.307695 -44.285716 44.000000
246.842108 -42.924814 44.000000
245.376521 -41.563912 44.000000
243.910934 -40.203010 44.000000
242.445347 -38.842108 44.000000
240.979760 -37.481205 44.000000
239.514173 -36.120303 44.000000
238.048586 -34.759401 44.000000
236.582999 -33.398499 44.000000
235.117412 -32.037597 44.000000
233.651825 -30.676694 44.000000
232.186238 -29.315792 44.000000
230.720651 -27.954890 44.000000
229.255064 -26.593988 44.000000
227.789477 -25.233086 44.000000
226.323890 -23.872183 44.000000
224.858303 -22.511281 44.000000
223.392716 -21.150379 44.000000
221.927129 -19.789477 44.000000
220.461542 -18.428575 44.000000
218.995955 -17.067672 44.000000
217.530368 -15.706770 44.000000
216.064781 -14.345868 44.000000
214.599194 -12.984966 44.000000
213.133607 -11.624064 44.000000
211.668020 -10.263161 44.000000
210.202433 -8.902259 44.000000
208.736846 -7.541357 44.000000
207.271259 -6.180455 44.000000
205.805672 -4.819553 44.000000
204.340085 -3.458650 44.000000
202.874498 -2.097748 44.000000
201.408911 -0.736846 44.000000
199.943324 0.624056 44.000000
198.477737 1.984958 44.000000
197.012150 3.345861 44.000000
195.546563 4.706763 44.000000
194.080976 6.067665 44.000000
192.615389 7.428567 44.000000
191.149802 8.789469 44.000000
189.684215 10.150372 44.000000
188.218628 11.511274 44.000000
186.753041 12.872176 44.000000
185.287454 14.233078 44.000000
183.821867 15.593980 44.000000
182.356280 16.954882 44.000000
180.890693 18.315785 44.000000
179.425106 19.676687 44.000000
177.959519 21.037589 44.000000
176.493932 22.398491 44.000000
175.028345 23.759393 44.000000
173.562758 25.120296 44.000000
172.097172 26.481198 44.000000
170.631585 27.842100 44.000000
169.165998 29.203002 44.000000
167.700411 30.563904 44.000000
166.234824 31.924807 44.000000
164.769237 33.285709 44.000000
163.303650 34.646611 44.000000
161.838063 36.007513 44.000000
160.372476 37.368415 44.000000
158.906889 38.729318 44.000000
157.441302 40.090220 44.000000
155.975715 41.451122 44.000000
154.510128 42.812024 44.000000
153.044541 44.172926 44.000000
151.578954 45.533829 44.000000
150.113367 46.894731 44.000000
148.647780 48.255633 44.000000
147.182193 49.616535 44.000000
145.716606 50.977437 44.000000
144.251019 52.338340 44.000000
142.785432 53.699242 44.000000
141.319845 55.060144 44.000000
139.854258 56.421046 44.000000
138.388671 57.781948 44.000000
136.923084 59.142851 44.000000
135.457497 60.503753 44.000000
133.991910 61.864655 44.000000
132.526323 63.225557 44.000000
131.060736 64.586459 44.000000
129.595149 65.947362 44.000000
128.129562 67.308264 44.000000
126.663975 68.669166 44.000000
125.198388 70.030068 44.000000
123.732801 71.390970 44.000000
122.267214 72.751873 44.000000
120.801627 74.112775 44.000000
119.336040 75.473677 44.000000
117.870453 76.834579 44.000000
116.404866 78.195481 44.000000
114.939279 79.556384 44.000000
113.473692 80.917286 44.000000
112.008105 82.278188 44.000000
110.542518 83.639090 44.000000
109.076931 84.999992 44.000000
107.611344 86.360895 44.000000
106.145757 87.721797 44.000000
104.680170 89.082699 44.000000
103.214583 90.443601 44.000000
101.748996 91.804503 44.000000
100.283409 93.165406 44.000000
98.817822 94.526308 44.000000
97.352235 95.887210 44.000000
95.886648 97.248112 44.000000
94.421061 98.609014 44.000000
92.955474 99.969917 44.000000
91.489887 101.330819 44.000000
90.024300 102.691721 44.000000
88.558713 104.052623 44.000000
87.093126 105.413525 44.000000
85.627539 106.774428 44.000000
84.161953 108.135330 44.000000
82.696366 109.496232 44.000000
81.230779 110.857134 44.000000
79.765192 112.218036 44.000000
78.299605 113.578939 44.000000
76.834018 114.939841 44.000000
75.368431 116.300743 44.000000
73.902844 117.661645 44.000000
72.437257 119.022547 44.000000
70.971670 120.383450 44.000000
69.506083 121.744352 44.000000
68.040496 123.105254 44.000000
66.574909 124.466156 44.000000
65.109322 125.827058 44.000000
63.643735 127.187961 44.000000
62.178148 128.548863 44.000000
60.712561 129.909765 44.000000
59.246974 131.270667 44.000000
57.781387 132.631569 44.000000
56.315800 133.992472 44.000000
54.850213 135.353374 44.000000
53.384626 136.714276 44.000000
51.919039 138.075178 44.000000
50.453452 139.436080 44.000000
48.987865 140.796983 44.000000
47.522278 142.157885 44.000000
46.056691 143.518787 44.000000
44.591104 144.879689 44.000000
43.125517 146.240591 44.000000
41.659930 147.601494 44.000000
40.194343 148.962396 44.000000
38.728756 150.323298 44.000000
37.263169 151.684200 44.000000
35.797582 153.045102 44.000000
34.331995 154.406005 44.000000
32.866408 155.766907 44.000000
31.400821 157.127809 44.000000
29.935234 158.488711 44.000000
28.469647 159.849613 44.000000
27.004060 161.210516 44.000000
25.538473 162.571418 44.000000
24.072886 163.932320 44.000000
22.607299 165.293222 44.000000
21.141712 166.654124 44.000000
19.676125 168.015027 44.000000
18.210538 169.375929 44.000000
16.744951 170.736831 44.000000
15.279364 172.097733 44.000000
13.813777 173.458635 44.000000
12.348190 174.819538 44.000000
10.882603 176.180440 44.000000
9.417016 177.541342 44.000000
7.951429 178.902244 44.000000
6.485842 180.263146 44.000000
5.020255 181.624049 44.000000
3.554668 182.984951 44.000000
2.089081 184.345853 44.000000
0.623494 185.706755 44.000000
-0.842093 187.067657 44.000000
-2.307679 188.428560 44.000000
-3.773266 189.789462 44.000000
-5.238853 191.150364 44.000000
-6.704440 192.511266 44.000000
-8.170027 193.872168 44.000000
-9.635614 195.233071 44.000000
-11.101201 196.593973 44.000000
-12.566788 197.954875 44.000000
-14.032375 199.315777 44.000000
-15.497962 200.676679 44.000000
-16.963549 202.037582 44.000000
-18.429136 203.398484 44.000000
-19.894723 204.759386 44.000000
-21.360310 206.120288 44.000000
-22.825897 207.481190 44.000000
-24.291484 208.842093 44.000000
-25.757071 210.202995 44.000000
-27.222658 211.563897 44.000000
-28.688245 212.924799 44.000000
-30.153832 214.285701 44.000000
640.000000 -376.000000 44.000000
640.000000 -376.000000 44.000000
638.463557 -374.719631 44.000000
636.927115 -373.439262 44.000000
635.390672 -372.158894 44.000000
633.854230 -370.878525 44.000000
632.317787 -369.598156 44.000000
630.781345 -368.317787 44.000000
629.244902 -367.037418 44.000000
627.708460 -365.757050 44.000000
626.172017 -364.476681 44.000000
624.635574 -363.196312 44.000000
623.099132 -361.915943 44.000000
621.562689 -360.635574 44.000000
620.026247 -359.355206 44.000000
618.489804 -358.074837 44.000000
616.953362 -356.794468 44.000000
615.416919 -355.514099 44.000000
613.880476 -354.233730 44.000000
612.344034 -352.953362 44.000000
610.807591 -351.672993 44.000000
609.271149 -350.392624 44.000000
607.734706 -349.112255 44.000000
606.198264 -347.831886 44.000000
604.661821 -346.551518 44.000000
603.125379 -345.271149 44.000000
601.588936 -343.990780 44.000000
600.052493 -342.710411 44.000000
598.516051 -341.430042 44.000000
596.979608 -340.149674 44.000000
595.443166 -338.869305 44.000000
593.906723 -337.588936 44.000000
592.370281 -336.308567 44.000000
590.833838 -335.028198 44.000000
589.297396 -333.747830 44.000000
587.760953 -332.467461 44.000000
586.224510 -331.187092 44.000000
584.688068 -329.906723 44.000000
583.151625 -328.626354 44.000000
581.615183 -327.345986 44.000000
580.078740 -326.065617 44.000000
578.542298 -324.785248 44.000000
577.005855 -323.504879 44.000000
575.469413 -322.224510 44.000000
573.932970 -320.944142 44.000000
572.396527 -319.663773 44.000000
570.860085 -318.383404 44.000000
569.323642 -317.103035 44.000000
567.787200 -315.822666 44.000000
566.250757 -314.542298 44.000000
564.714315 -313.261929 44.000000
563.177872 -311.981560 44.000000
561.641429 -310.701191 44.000000
560.104987 -309.420822 44.000000
558.568544 -308.140454 44.000000
557.032102 -306.860085 44.000000
555.495659 -305.579716 44.000000
553.959217 -304.299347 44.000000
552.422774 -303.018978 44.000000
550.886332 -301.738610 44.000000
549.349889 -300.458241 44.000000
547.813446 -299.177872 44.000000
546.277004 -297.897503 44.000000
544.740561 -296.617134 44.000000
543.204119 -295.336766 44.000000
541.667676 -294.056397 44.000000
540.131234 -292.776028 44.000000
538.594791 -291.495659 44.000000
537.058349 -290.215290 44.000000
535.521906 -288.934922 44.000000
533.985463 -287.654553 44.000000
532.449021 -286.374184 44.000000
530.912578 -285.093815 44.000000
529.376136 -283.813446 44.000000
527.839693 -282.533078 44.000000
526.303251 -281.252709 44.000000
524.766808 -279.972340 44.000000
523.230366 -278.691971 44.000000
521.693923 -277.411602 44.000000
520.157480 -276.131234 44.000000
518.621038 -274.850865 44.000000
517.084595 -273.570496 44.000000
515.548153 -272.290127 44.000000
514.011710 -271.009758 44.000000
512.475268 -269.729390 44.000000
510.938825 -268.449021 44.000000
509.402382 -267.168652 44.000000
507.865940 -265.888283 44.000000
506.329497 -264.607914 44.000000
504.793055 -263.327546 44.000000
503.256612 -262.047177 44.000000
501.720170 -260.766808 44.000000
500.183727 -259.486439 44.000000
498.647285 -258.206070 44.000000
497.110842 -256.925702 44.000000
495.574399 -255.645333 44.000000
494.037957 -254.364964 44.000000
492.501514 -253.084595 44.000000
490.965072 -251.804226 44.000000
489.428629 -250.523858 44.000000
487.892187 -249.243489 44.000000
486.355744 -247.963120 44.000000
484.819302 -246.682751 44.000000
483.282859 -245.402382 44.000000
481.746416 -244.122014 44.000000
480.209974 -242.841645 44.000000
478.673531 -241.561276 44.000000
477.137089 -240.280907 44.000000
475.600646 -239.000538 44.000000
474.064204 -237.720170 44.000000
472.527761 -236.439801 44.000000
470.991318 -235.159432 44.000000
469.454876 -233.879063 44.000000
467.918433 -232.598694 44.000000
466.381991 -231.318326 44.000000
464.845548 -230.037957 44.000000
463.309106 -228.757588 44.000000
461.772663 -227.477219 44.000000
460.236221 -226.196850 44.000000
458.699778 -224.916482 44.000000
457.163335 -223.636113 44.000000
455.626893 -222.355744 44.000000
454.090450 -221.075375 44.000000
452.554008 -219.795006 44.000000
451.017565 -218.514638 44.000000
449.481123 -217.234269 44.000000
447.944680 -215.953900 44.000000
446.408238 -214.673531 44.000000
444.871795 -213.393162 44.000000
443.335352 -212.112794 44.000000
441.798910 -210.832425 44.000000
440.262467 -209.552056 44.000000
438.726025 -208.271687 44.000000
437.189582 -206.991318 44.000000
435.653140 -205.710950 44.000000
434.116697 -204.430581 44.000000
432.580255 -203.150212 44.000000
431.043812 -201.869843 44.000000
429.507369 -200.589474 44.000000
427.970927 -199.309106 44.000000
426.434484 -198.028737 44.000000
424.898042 -196.748368 44.000000
423.361599 -195.467999 44.000000
421.825157 -194.187630 44.000000
420.288714 -192.907262 44.000000
418.752271 -191.626893 44.000000
417.215829 -190.346524 44.000000
415.679386 -189.066155 44.000000
414.142944 -187.785786 44.000000
412.606501 -186.505418 44.000000
411.070059 -185.225049 44.000000
409.533616 -183.944680 44.000000
407.997174 -182.664311 44.000000
406.460731 -181.383943 44.000000
404.924288 -180.103574 44.000000
403.387846 -178.823205 44.000000
401.851403 -177.542836 44.000000
400.314961 -176.262467 44.000000
398.778518 -174.982099 44.000000
397.242076 -173.701730 44.000000
395.705633 -172.421361 44.000000
394.169191 -171.140992 44.000000
392.632748 -169.860623 44.000000
391.096305 -168.580255 44.000000
389.559863 -167.299886 44.000000
388.023420 -166.019517 44.000000
386.486978 -164.739148 44.000000
384.950535 -163.458779 44.000000
383.414093 -162.178411 44.000000
381.877650 -160.898042 44.000000
380.341207 -159.617673 44.000000
378.804765 -158.337304 44.000000
377.268322 -157.056935 44.000000
375.731880 -155.776567 44.000000
374.195437 -154.496198 44.000000
372.658995 -153.215829 44.000000
371.122552 -151.935460 44.000000
369.586110 -150.655091 44.000000
368.049667 -149.374723 44.000000
366.513224 -148.094354 44.000000
364.976782 -146.813985 44.000000
363.440339 -145.533616 44.000000
361.903897 -144.253247 44.000000
360.367454 -142.972879 44.000000
358.831012 -141.692510 44.000000
357.294569 -140.412141 44.000000
355.758127 -139.131772 44.000000
354.221684 -137.851403 44.000000
352.685241 -136.571035 44.000000
351.148799 -135.290666 44.000000
349.612356 -134.010297 44.000000
348.075914 -132.729928 44.000000
346.539471 -131.449559 44.000000
345.003029 -130.169191 44.000000
343.466586 -128.888822 44.000000
341.930144 -127.608453 44.000000
340.393701 -126.328084 44.000000
338.857258 -125.047715 44.000000
337.320816 -123.767347 44.000000
335.784373 -122.486978 44.000000
334.247931 -121.206609 44.000000
332.711488 -119.926240 44.000000
331.175046 -118.645871 44.000000
329.638603 -117.365503 44.000000
328.102160 -116.085134 44.000000
326.565718 -114.804765 44.000000
325.029275 -113.524396 44.000000
323.492833 -112.244027 44.000000
321.956390 -110.963659 44.000000
320.419948 -109.683290 44.000000
318.883505 -108.402921 44.000000
317.347063 -107.122552 44.000000
315.810620 -105.842183 44.000000
314.274177 -104.561815 44.000000
312.737735 -103.281446 44.000000
311.201292 -102.001077 44.000000
309.664850 -100.720708 44.000000
308.128407 -99.440339 44.000000
306.591965 -98.159971 44.000000
640.000000 -376.000000 -396.000000
640.000000 -376.000000 -396.000000
640.000000 -376.000000 -394.000000
640.000000 -376.000000 -392.000000
640.000000 -376.000000 -390.000000
640.000000 -376.000000 -388.000000
640.000000 -376.000000 -386.000000
640.000000 -376.000000 -384.000000
640.000000 -376.000000 -382.000000
640.000000 -376.000000 -380.000000
640.000000 -376.000000 -378.000000
640.000000 -376.000000 -376.000000
640.000000 -376.000000 -374.000000
640.000000 -376.000000 -372.000000
640.000000 -376.000000 -370.000000
640.000000 -376.000000 -368.000000
640.000000 -376.000000 -366.000000
640.000000 -376.000000 -364.000000
640.000000 -376.000000 -362.000000
640.000000 -376.000000 -360.000000
640.000000 -376.000000 -358.000000
640.000000 -376.000000 -356.000000
640.000000 -376.000000 -354.000000
640.000000 -376.000000 -352.000000
640.000000 -376.000000 -350.000000
640.000000 -376.000000 -348.000000
640.000000 -376.000000 -346.000000
640.000000 -376.000000 -344.000000
640.000000 -376.000000 -342.000000
640.000000 -376.000000 -340.000000
640.000000 -376.000000 -338.000000
640.000000 -376.000000 -336.000000
640.000000 -376.000000 -334.000000
640.000000 -376.000000 -332.000000
640.000000 -376.000000 -330.000000
640.000000 -376.000000 -328.000000
640.000000 -376.000000 -326.000000
640.000000 -376.000000 -324.000000
640.000000 -376.000000 -322.000000
640.000000 -376.000000 -320.000000
640.000000 -376.000000 -318.000000
640.000000 -376.000000 -316.000000
640.000000 -376.000000 -314.000000
640.000000 -376.000000 -312.000000
640.000000 -376.000000 -310.000000
640.000000 -376.000000 -308.000000
640.000000 -376.000000 -306.000000
640.000000 -376.000000 -304.000000
640.000000 -376.000000 -302.000000
640.000000 -376.000000 -300.000000
640.000000 -376.000000 -298.000000
640.000000 -376.000000 -296.000000
640.000000 -376.000000 -294.000000
640.000000 -376.000000 -292.000000
640.000000 -376.000000 -290.000000
640.000000 -376.000000 -288.000000
640.000000 -376.000000 -286.000000
640.000000 -376.000000 -284.000000
640.000000 -376.000000 -282.000000
640.000000 -376.000000 -280.000000
640.000000 -376.000000 -278.000000
640.000000 -376.000000 -276.000000
640.000000 -376.000000 -274.000000
640.000000 -376.000000 -272.000000
640.000000 -376.000000 -270.000000
640.000000 -376.000000 -268.000000
640.000000 -376.000000 -266.000000
640.000000 -376.000000 -264.000000
640.000000 -376.000000 -262.000000
640.000000 -376.000000 -260.000000
640.000000 -376.000000 -258.000000
640.000000 -376.000000 -256.000000
640.000000 -376.000000 -254.000000
640.000000 -376.000000 -252.000000
640.000000 -376.000000 -250.000000
640.000000 -376.000000 -248.000000
640.000000 -376.000000 -246.000000
640.000000 -376.000000 -244.000000
640.000000 -376.000000 -242.000000
640.000000 -376.000000 -240.000000
640.000000 -376.000000 -238.000000
640.000000 -376.000000 -236.000000
640.000000 -376.000000 -234.000000
640.000000 -376.000000 -232.000000
640.000000 -376.000000 -230.000000
640.000000 -376.000000 -228.000000
640.000000 -376.000000 -226.000000
640.000000 -376.000000 -224.000000
640.000000 -376.000000 -222.000000
640.000000 -376.000000 -220.000000
640.000000 -376.000000 -218.000000
640.000000 -376.000000 -216.000000
640.000000 -376.000000 -214.000000
640.000000 -376.000000 -212.000000
640.000000 -376.000000 -210.000000
640.000000 -376.000000 -208.000000
640.000000 -376.000000 -206.000000
640.000000 -376.000000 -204.000000
640.000000 -376.000000 -202.000000
640.000000 -376.000000 -200.000000
640.000000 -376.000000 -198.000000
640.000000 -376.000000 -196.000000
640.000000 -376.000000 -194.000000
640.000000 -376.000000 -192.000000
640.000000 -376.000000 -190.000000
640.000000 -376.000000 -188.000000
640.000000 -376.000000 -186.000000
640.000000 -376.000000 -184.000000
640.000000 -376.000000 -182.000000
640.000000 -376.000000 -180.000000
640.000000 -376.000000 -178.000000
640.000000 -376.000000 -176.000000
640.000000 -376.000000 -174.000000
640.000000 -376.000000 -172.000000
640.000000 -376.000000 -170.000000
640.000000 -376.000000 -168.000000
640.000000 -376.000000 -166.000000
640.000000 -376.000000 -164.000000
640.000000 -376.000000 -162.000000
640.000000 -376.000000 -160.000000
640.000000 -376.000000 -158.000000
640.000000 -376.000000 -156.000000
640.000000 -376.000000 -154.000000
640.000000 -376.000000 -152.000000
640.000000 -376.000000 -150.000000
640.000000 -376.000000 -148.000000
640.000000 -376.000000 -146.000000
640.000000 -376.000000 -144.000000
640.000000 -376.000000 -142.000000
640.000000 -376.000000 -140.000000
640.000000 -376.000000 -138.000000
640.000000 -376.000000 -136.000000
640.000000 -376.000000 -134.000000
640.000000 -376.000000 -132.000000
640.000000 -376.000000 -130.000000
640.000000 -376.000000 -128.000000
640.000000 -376.000000 -126.000000
640.000000 -376.000000 -124.000000
640.000000 -376.000000 -122.000000
640.000000 -376.000000 -120.000000
640.000000 -376.000000 -118.000000
640.000000 -376.000000 -116.000000
640.000000 -376.000000 -114.000000
640.000000 -376.000000 -112.000000
640.000000 -376.000000 -110.000000
640.000000 -376.000000 -108.000000
640.000000 -376.000000 -106.000000
640.000000 -376.000000 -104.000000
640.000000 -376.000000 -102.000000
640.000000 -376.000000 -100.000000
640.000000 -376.000000 -98.000000
640.000000 -376.000000 -96.000000
640.000000 -376.000000 -94.000000
640.000000 -376.000000 -92.000000
640.000000 -376.000000 -90.000000
640.000000 -376.000000 -88.000000
640.000000 -376.000000 -86.000000
640.000000 -376.000000 -84.000000
640.000000 -376.000000 -82.000000
640.000000 -376.000000 -80.000000
640.000000 -376.000000 -78.000000
640.000000 -376.000000 -76.000000
640.000000 -376.000000 -74.000000
640.000000 -376.000000 -72.000000
640.000000 -376.000000 -70.000000
640.000000 -376.000000 -68.000000
640.000000 -376.000000 -66.000000
640.000000 -376.000000 -64.000000
640.000000 -376.000000 -62.000000
640.000000 -376.000000 -60.000000
640.000000 -376.000000 -58.000000
640.000000 -376.000000 -56.000000
640.000000 -376.000000 -54.000000
640.000000 -376.000000 -52.000000
640.000000 -376.000000 -50.000000
640.000000 -376.000000 -48.000000
640.000000 -376.000000 -46.000000
640.000000 -376.000000 -44.000000
640.000000 -376.000000 -42.000000
640.000000 -376.000000 -40.000000
640.000000 -376.000000 -38.000000
640.000000 -376.000000 -36.000000
640.000000 -376.000000 -34.000000
640.000000 -376.000000 -32.000000
640.000000 -376.000000 -30.000000
640.000000 -376.000000 -28.000000
640.000000 -376.000000 -26.000000
640.000000 -376.000000 -24.000000
640.000000 -376.000000 -22.000000
640.000000 -376.000000 -20.000000
640.000000 -376.000000 -18.000000
640.000000 -376.000000 -16.000000
640.000000 -376.000000 -14.000000
640.000000 -376.000000 -12.000000
640.000000 -376.000000 -10.000000
640.000000 -376.000000 -8.000000
640.000000 -376.000000 -6.000000
640.000000 -376.000000 -4.000000
640.000000 -376.000000 -2.000000
640.000000 -376.000000 0.000000
640.000000 -376.000000 2.000000
640.000000 -376.000000 4.000000
640.000000 -376.000000 6.000000
640.000000 -376.000000 8.000000
640.000000 -376.000000 10.000000
640.000000 -376.000000 12.000000
640.000000 -376.000000 14.000000
640.000000 -376.000000 16.000000
640.000000 -376.000000 18.000000
640.000000 -376.000000 20.000000
640.000000 -376.000000 22.000000
640.000000 -376.000000 24.000000
640.000000 -376.000000 26.000000
640.000000 -376.000000 28.000000
640.000000 -376.000000 30.000000
640.000000 -376.000000 32.000000
640.000000 -376.000000 34.000000
640.000000 -376.000000 36.000000
640.000000 -376.000000 38.000000
640.000000 -376.000000 40.000000
304.000000 -656.000000 -396.000000
304.000000 -656.000000 -396.000000
305.536443 -654.719631 -396.000000
307.072885 -653.439262 -396.000000
308.609328 -652.158894 -396.000000
310.145770 -650.878525 -396.000000
311.682213 -649.598156 -396.000000
313.218655 -648.317787 -396.000000
314.755098 -647.037418 -396.000000
316.291540 -645.757050 -396.000000
317.827983 -644.476681 -396.000000
319.364426 -643.196312 -396.000000
320.900868 -641.915943 -396.000000
322.437311 -640.635574 -396.000000
323.973753 -639.355206 -396.000000
325.510196 -638.074837 -396.000000
327.046638 -636.794468 -396.000000
328.583081 -635.514099 -396.000000
330.119524 -634.233730 -396.000000
331.655966 -632.953362 -396.000000
333.192409 -631.672993 -396.000000
334.728851 -630.392624 -396.000000
336.265294 -629.112255 -396.000000
337.801736 -627.831886 -396.000000
339.338179 -626.551518 -396.000000
340.874621 -625.271149 -396.000000
342.411064 -623.990780 -396.000000
343.947507 -622.710411 -396.000000
345.483949 -621.430042 -396.000000
347.020392 -620.149674 -396.000000
348.556834 -618.869305 -396.000000
350.093277 -617.588936 -396.000000
351.629719 -616.308567 -396.000000
353.166162 -615.028198 -396.000000
354.702604 -613.747830 -396.000000
356.239047 -612.467461 -396.000000
357.775490 -611.187092 -396.000000
359.311932 -609.906723 -396.000000
360.848375 -608.626354 -396.000000
362.384817 -607.345986 -396.000000
363.921260 -606.065617 -396.000000
365.457702 -604.785248 -396.000000
366.994145 -603.504879 -396.000000
368.530587 -602.224510 -396.000000
370.067030 -600.944142 -396.000000
371.603473 -599.663773 -396.000000
373.139915 -598.383404 -396.000000
374.676358 -597.103035 -396.000000
376.212800 -595.822666 -396.000000
377.749243 -594.542298 -396.000000
379.285685 -593.261929 -396.000000
380.822128 -591.981560 -396.000000
382.358571 -590.701191 -396.000000
383.895013 -589.420822 -396.000000
385.431456 -588.140454 -396.000000
386.967898 -586.860085 -396.000000
388.504341 -585.579716 -396.000000
390.040783 -584.299347 -396.000000
391.577226 -583.018978 -396.000000
393.113668 -581.738610 -396.000000
394.650111 -580.458241 -396.000000
396.186554 -579.177872 -396.000000
397.722996 -577.897503 -396.000000
399.259439 -576.617134 -396.000000
400.795881 -575.336766 -396.000000
402.332324 -574.056397 -396.000000
403.868766 -572.776028 -396.000000
405.405209 -571.495659 -396.000000
406.941651 -570.215290 -396.000000
408.478094 -568.934922 -396.000000
410.014537 -567.654553 -396.000000
411.550979 -566.374184 -396.000000
413.087422 -565.093815 -396.000000
414.623864 -563.813446 -396.000000
416.160307 -562.533078 -396.000000
417.696749 -561.252709 -396.000000
419.233192 -559.972340 -396.000000
420.769634 -558.691971 -396.000000
422.306077 -557.411602 -396.000000
423.842520 -556.131234 -396.000000
425.378962 -554.850865 -396.000000
426.915405 -553.570496 -396.000000
428.451847 -552.290127 -396.000000
429.988290 -551.009758 -396.000000
431.524732 -549.729390 -396.000000
433.061175 -548.449021 -396.000000
434.597618 -547.168652 -396.000000
436.134060 -545.888283 -396.000000
437.670503 -544.607914 -396.000000
439.206945 -543.327546 -396.000000
440.743388 -542.047177 -396.000000
442.279830 -540.766808 -396.000000
443.816273 -539.486439 -396.000000
445.352715 -538.206070 -396.000000
446.889158 -536.925702 -396.000000
448.425601 -535.645333 -396.000000
449.962043 -534.364964 -396.000000
451.498486 -533.084595 -396.000000
453.034928 -531.804226 -396.000000
454.571371 -530.523858 -396.000000
456.107813 -529.243489 -396.000000
457.644256 -527.963120 -396.000000
459.180698 -526.682751 -396.000000
460.717141 -525.402382 -396.000000
462.253584 -524.122014 -396.000000
463.790026 -522.841645 -396.000000
465.326469 -521.561276 -396.000000
466.862911 -520.280907 -396.000000
468.399354 -519.000538 -396.000000
469.935796 -517.720170 -396.000000
471.472239 -516.439801 -396.000000
473.008682 -515.159432 -396.000000
474.545124 -513.879063 -396.000000
476.081567 -512.598694 -396.000000
477.618009 -511.318326 -396.000000
479.154452 -510.037957 -396.000000
480.690894 -508.757588 -396.000000
482.227337 -507.477219 -396.000000
483.763779 -506.196850 -396.000000
485.300222 -504.916482 -396.000000
486.836665 -503.636113 -396.000000
488.373107 -502.355744 -396.000000
489.909550 -501.075375 -396.000000
491.445992 -499.795006 -396.000000
492.982435 -498.514638 -396.000000
494.518877 -497.234269 -396.000000
496.055320 -495.953900 -396.000000
497.591762 -494.673531 -396.000000
499.128205 -493.393162 -396.000000
500.664648 -492.112794 -396.000000
502.201090 -490.832425 -396.000000
503.737533 -489.552056 -396.000000
505.273975 -488.271687 -396.000000
506.810418 -486.991318 -396.000000
508.346860 -485.710950 -396.000000
509.883303 -484.430581 -396.000000
511.419745 -483.150212 -396.000000
512.956188 -481.869843 -396.000000
514.492631 -480.589474 -396.000000
516.029073 -479.309106 -396.000000
517.565516 -478.028737 -396.000000
519.101958 -476.748368 -396.000000
520.638401 -475.467999 -396.000000
522.174843 -474.187630 -396.000000
523.711286 -472.907262 -396.000000
525.247729 -471.626893 -396.000000
526.784171 -470.346524 -396.000000
528.320614 -469.066155 -396.000000
529.857056 -467.785786 -396.000000
531.393499 -466.505418 -396.000000
532.929941 -465.225049 -396.000000
534.466384 -463.944680 -396.000000
536.002826 -462.664311 -396.000000
537.539269 -461.383943 -396.000000
539.075712 -460.103574 -396.000000
540.612154 -458.823205 -396.000000
542.148597 -457.542836 -396.000000
543.685039 -456.262467 -396.000000
545.221482 -454.982099 -396.000000
546.757924 -453.701730 -396.000000
548.294367 -452.421361 -396.000000
549.830809 -451.140992 -396.000000
551.367252 -449.860623 -396.000000
552.903695 -448.580255 -396.000000
554.440137 -447.299886 -396.000000
555.976580 -446.019517 -396.000000
557.513022 -444.739148 -396.000000
559.049465 -443.458779 -396.000000
560.585907 -442.178411 -396.000000
562.122350 -440.898042 -396.000000
563.658793 -439.617673 -396.000000
565.195235 -438.337304 -396.000000
566.731678 -437.056935 -396.000000
568.268120 -435.776567 -396.000000
569.804563 -434.496198 -396.000000
571.341005 -433.215829 -396.000000
572.877448 -431.935460 -396.000000
574.413890 -430.655091 -396.000000
575.950333 -429.374723 -396.000000
577.486776 -428.094354 -396.000000
579.023218 -426.813985 -396.000000
580.559661 -425.533616 -396.000000
582.096103 -424.253247 -396.000000
583.632546 -422.972879 -396.000000
585.168988 -421.692510 -396.000000
586.705431 -420.412141 -396.000000
588.241873 -419.131772 -396.000000
589.778316 -417.851403 -396.000000
591.314759 -416.571035 -396.000000
592.851201 -415.290666 -396.000000
594.387644 -414.010297 -396.000000
595.924086 -412.729928 -396.000000
597.460529 -411.449559 -396.000000
598.996971 -410.169191 -396.000000
600.533414 -408.888822 -396.000000
602.069856 -407.608453 -396.000000
603.606299 -406.328084 -396.000000
605.142742 -405.047715 -396.000000
606.679184 -403.767347 -396.000000
608.215627 -402.486978 -396.000000
609.752069 -401.206609 -396.000000
611.288512 -399.926240 -396.000000
612.824954 -398.645871 -396.000000
614.361397 -397.365503 -396.000000
615.897840 -396.085134 -396.000000
617.434282 -394.804765 -396.000000
618.970725 -393.524396 -396.000000
620.507167 -392.244027 -396.000000
622.043610 -390.963659 -396.000000
623.580052 -389.683290 -396.000000
625.116495 -388.402921 -396.000000
626.652937 -387.122552 -396.000000
628.189380 -385.842183 -396.000000
629.725823 -384.561815 -396.000000
631.262265 -383.281446 -396.000000
632.798708 -382.001077 -396.000000
634.335150 -380.720708 -396.000000
635.871593 -379.440339 -396.000000
637.408035 -378.159971 -396.000000
-32.000000 -668.000000 -176.000000
-32.000000 -668.000000 -176.000000
-30.327509 -667.940268 -177.095083
-28.655019 -667.880536 -178.190166
-26.982528 -667.820805 -179.285249
-25.310037 -667.761073 -180.380333
-23.637547 -667.701341 -181.475416
-21.965056 -667.641609 -182.570499
-20.292565 -667.581877 -183.665582
-18.620075 -667.522146 -184.760665
-16.947584 -667.462414 -185.855748
-15.275093 -667.402682 -186.950832
-13.602603 -667.342950 -188.045915
-11.930112 -667.283218 -189.140998
-10.257622 -667.223486 -190.236081
-8.585131 -667.163755 -191.331164
-6.912640 -667.104023 -192.426247
-5.240150 -667.044291 -193.521331
-3.567659 -666.984559 -194.616414
-1.895168 -666.924827 -195.711497
-0.222678 -666.865096 -196.806580
1.449813 -666.805364 -197.901663
3.122304 -666.745632 -198.996746
